# .PCD v0.7 - Point Cloud Data file format
VERSION 0.7
FIELDS x y z intensity
SIZE 4 4 4 4
TYPE F F F F
COUNT 1 1 1 1
WIDTH 1300
HEIGHT 1
VIEWPOINT 0 0 0 1 0 0 0
POINTS 1300
DATA ascii
-0.070721708 -4.4040542 1.180215 100
-0.038877923 -2.2273216 0.038883962 10
-0.040098924 -2.2745245 0.11922132 4
-0.040900853 -2.2749412 0.19906372 11
-0.042702086 -2.3522861 -0.37262696 1
-0.071079619 -3.8782191 0.47626543 10
-0.043810647 -2.36781 -0.29078028 1
-0.075498566 -4.0804296 0.64638728 36
-0.043530714 -2.3306892 -0.20394444 1
-0.083777077 -4.4440184 0.86398321 32
-0.044186655 -2.3223922 -0.12173345 6
-0.085296512 -4.4423094 1.0257769 61
-0.044684745 -2.3272166 -0.040629201 10
-0.085663199 -4.4211788 1.1848736 100
-0.046097472 -2.2191832 0.038744342 10
-0.047574386 -2.2524059 0.11806992 9
-0.048755884 -2.2708008 0.19871511 15
-0.050502121 -2.3521316 -0.37262696 1
-0.088149898 -4.0724554 0.50015181 2
-0.051272687 -2.3497899 -0.28858662 1
-0.090045169 -4.093966 0.64857739 31
-0.051665857 -2.330523 -0.20394444 1
-0.099035844 -4.4672694 0.86856258 32
-0.051932443 -2.3242295 -0.12183812 4
-0.10033453 -4.4556394 1.0289263 63
-0.052399453 -2.3090539 -0.040315062 11
-0.10211087 -4.4652739 1.1967793 100
-0.053795405 -2.2170098 0.038709439 10
-0.055485666 -2.2542226 0.11817461 17
-0.056088455 -2.2626595 0.19801784 38
-0.10316318 -4.1038747 0.50405163 1
-0.059976779 -2.3694413 -0.291024 1
-0.10433534 -4.093627 0.64857739 37
-0.059136473 -2.304436 -0.20167838 1
-0.11523395 -4.490448 0.873142 79
-0.059838649 -2.3160477 -0.12141944 5
-0.11664668 -4.4844832 1.0356747 83
-0.060250197 -2.3008609 -0.040175438 10
-0.11825655 -4.4861336 1.2024734 100
-0.061200768 -2.2048149 0.038500007 9
-0.063410208 -2.2560117 0.11827926 59
-0.063701101 -2.2385397 0.19592611 26
-0.064311534 -2.2462041 0.27591223 1
-0.067104205 -2.3295321 -0.28614923 1
-0.11891036 -4.1031103 0.65014172 36
-0.066889569 -2.2942579 -0.20080683 1
-0.13226713 -4.5096192 0.87695819 84
-0.068032518 -2.305831 -0.12089607 4
-0.13319805 -4.4879217 1.0365745 83
-0.06762857 -2.2786498 -0.039791487 8
-0.1338007 -4.4818311 1.2014381 70
-0.068653338 -2.1845887 0.038150962 9
-0.071473815 -2.2617652 0.11859328 14
-0.071323596 -2.2323296 0.19540317 11
-0.13239899 -4.0990629 0.50356412 1
-0.076286256 -2.3491108 -0.28858662 1
-0.13368107 -4.1164904 0.65233177 31
-0.073987193 -2.2661316 -0.19836646 1
-0.14813624 -4.5130548 0.87772143 100
-0.076015145 -2.3035831 -0.1207914 4
-0.14989744 -4.5185919 1.0437729 106
-0.07558246 -2.2783997 -0.039791487 9
-0.15008785 -4.5006442 1.2066144 100
-0.075619638 -2.1763554 0.038011342 9
-0.079018228 -2.2515221 0.11806992 11
-0.08024472 -2.2639253 0.19819216 9
-0.079284795 -2.225862 0.27347484 1
-0.084075585 -2.3488448 -0.28858662 1
-0.082041286 -2.2698419 -0.19871511 1
-0.16288869 -4.5066528 0.8765766 100
-0.082711115 -2.2773709 -0.11943066 5
-0.16445403 -4.5063853 1.0410736 87
-0.083388329 -2.2741249 -0.039721675 8
-0.16537049 -4.4885101 1.2035086 100
-0.083215885 -2.1760781 0.038011342 9
-0.086954109 -2.2532282 0.11817461 9
-0.087828986 -2.2656374 0.19836646 5
-0.16417636 -4.1972461 0.51575112 1
-0.09133894 -2.3247347 -0.28566176 1
-0.08895871 -2.2541256 0.35729638 1
-0.0894114 -2.2556059 -0.19749491 1
-0.17892949 -4.5139031 0.87810302 68
-0.090581015 -2.2750731 -0.119326 6
-0.17956045 -4.4902058 1.0374743 67
-0.091245547 -2.271822 -0.039686773 10
-0.18041451 -4.4724631 1.1993675 100
-0.090478055 -2.1677823 0.037871722 9
-0.09532252 -2.264884 0.11880264 2
-0.096132413 -2.2653003 0.19836646 2
-0.096512005 -2.2649202 0.27834961 6
-0.10047156 -2.3482008 -0.28858662 1
-0.09665703 -2.2498546 0.35667065 6
-0.097027116 -2.2493083 -0.19697197 1
-0.19479306 -4.4975262 0.87505013 37
-0.098398104 -2.2627532 -0.11869796 5
-0.19457169 -4.4564209 1.0298259 61
-0.097954303 -2.2435205 -0.039198104 10
-0.19526339 -4.4544358 1.1947087 100
-0.097968988 -2.1574478 0.0376972 10
-0.10426221 -2.2784858 0.11953534 4
-0.10394757 -2.2629609 0.19819216 8
-0.10508835 -2.2705002 0.27908084 8
-0.10389033 -2.2277794 0.35322908 3
-0.10413539 -2.2330344 -0.19557749 1
-0.20929791 -4.4713244 0.87008911 37
-0.10554616 -2.2464356 -0.11786059 4
-0.2098505 -4.4498749 1.0284762 61
-0.1057036 -2.2331593 -0.039023582 9
-0.20966382 -4.4131675 1.1838384 100
-0.1045225 -2.1371198 0.037348151 10
-0.1123133 -2.2801027 0.11964 4
-0.11164948 -2.2586045 0.19784354 11
-0.11222368 -2.2542584 0.27713093 11
-0.11265496 -2.2471323 0.35635775 3
-0.11242809 -2.2426066 -0.19644904 1
-0.22362225 -4.4450765 0.86512804 37
-0.11298432 -2.2380748 -0.1174419 4
-0.22459359 -4.4335451 1.0248771 64
-0.11339668 -2.2307796 -0.03898868 9
-0.22378764 -4.3873272 1.1771091 100
-0.11177256 -2.1327481 0.037278343 10
-0.1197456 -2.2697241 0.11911664 3
-0.11932223 -2.2542214 0.19749491 9
-0.11871854 -2.2280834 0.27396232 9
-0.12060436 -2.248698 0.35667065 3
-0.11961566 -2.2302635 -0.19540317 1
-0.23744892 -4.4129019 0.85902214 35
-0.12004212 -2.223706 -0.11670919 4
-0.23848751 -4.4035454 1.0181285 59
-0.12129141 -2.232367 -0.039023582 9
-0.23794387 -4.3653002 1.171415 100
-0.11943961 -2.136338 0.037348151 10
-0.12800431 -2.2752745 0.11943066 1
-0.12719026 -2.2537913 0.19749491 9
-0.12739567 -2.2435105 0.27591223 9
-0.12834015 -2.2462909 0.35635775 4
-0.25184056 -4.3944058 0.8555876 37
-0.12746006 -2.2172918 -0.11639518 4
-0.25194991 -4.3696127 1.0104802 58
-0.12792857 -2.2119663 -0.038674533 9
-0.25306895 -4.3625145 1.1708974 100
-0.12594764 -2.1199384 0.037068911 10
-0.13809043 -2.3107009 0.12131476 1
-0.13529517 -2.2573113 0.19784354 10
-0.13630138 -2.2608855 0.27810585 17
-0.13558264 -2.2359703 0.3547934 3
-0.2662251 -4.3778234 0.85253465 34
-0.13434778 -2.2028782 -0.11566247 4
-0.26625007 -4.3531461 1.006881 61
-0.13503665 -2.2015266 -0.038500007 10
-0.26651588 -4.3326817 1.1631329 100
-0.1328444 -2.1115031 0.036929294 9
-0.14539859 -2.298245 0.12068672 1
-0.14355204 -2.2627902 0.19836646 23
-0.14381346 -2.2544527 0.27737463 35
-0.14338687 -2.2354834 0.3547934 4
-0.28188306 -4.3827443 0.85367942 40
-0.14255041 -2.2103684 -0.11608116 4
-0.28043729 -4.3366327 1.0032817 58
-0.14129733 -2.1790912 -0.038116053 9
-0.27988398 -4.3047357 1.1558858 100
-0.13955154 -2.1010501 0.036754768 11
-0.15275371 -2.2937646 0.12047738 1
-0.15078443 -2.2523358 0.19749491 36
-0.15061559 -2.2380919 0.27542472 33
-0.15186313 -2.2507629 0.35729638 4
-0.29438981 -4.3406 0.84566551 39
-0.14958802 -2.1998942 -0.1155578 4
-0.29477817 -4.3239622 1.0005825 58
-0.14811474 -2.1726258 -0.038011342 9
-0.29310328 -4.2883654 1.1517448 100
-0.14457017 -2.0726478 0.0362661 10
-0.16494939 -2.3529887 0.12361754 1
-0.15780556 -2.239871 0.19644904 24
-0.15663807 -2.2177787 0.27298734 16
-0.15971865 -2.2502191 0.35729638 4
-0.30780745 -4.325892 0.84299421 34
-0.15531898 -2.1774716 -0.11440641 4
-0.30716905 -4.2957478 0.99428368 56
-0.15684155 -2.1880519 -0.038290579 10
-0.30724004 -4.2757545 1.148639 100
-0.151804 -2.0721307 0.0362661 10
-0.17275137 -2.3524287 0.12361754 1
-0.16611214 -2.2512572 0.19749491 9
-0.16423191 -2.215239 0.27274361 10
-0.16747265 -2.253617 0.35792211 4
-0.32173592 -4.3091288 0.83994126 34
-0.16247173 -2.1709414 -0.11409239 4
-0.32128814 -4.28299 0.99158424 61
-0.16289994 -2.1715672 -0.038011342 10
-0.32054785 -4.2631536 1.1455331 100
-0.1589801 -2.0756032 0.036335908 11
-0.17912342 -2.3279147 0.12236147 1
-0.17304797 -2.238745 0.19644904 6
-0.1717304 -2.216661 0.27298734 4
-0.17503147 -2.2490799 0.35729638 4
-0.33526054 -4.2982512 0.83803314 32
-0.1688917 -2.1604345 -0.11356904 4
-0.33427119 -4.2663589 0.98798507 61
-0.16844381 -2.1450689 -0.03755758 11
-0.3343662 -4.2485275 1.1419097 100
-0.16478708 -2.0570962 0.036021769 10
-0.1861268 -2.3133395 0.12162878 1
-0.18095145 -2.2441165 0.19697197 4
-0.18331249 -2.2635353 0.27883708 5
-0.18352203 -2.2563305 0.35854784 3
-0.34893429 -4.2715559 0.83307213 34
-0.17762378 -2.1697543 -0.11409239 4
-0.34757164 -4.2457433 0.98348606 61
-0.17511277 -2.1345031 -0.037383057 10
-0.34602851 -4.2088275 1.1315569 100
-0.17165795 -2.0485075 0.035882145 9
-0.19544178 -2.322593 0.12215213 1
-0.18967763 -2.2493944 0.19749491 5
-0.19077009 -2.2529578 0.27761838 4
-0.19212541 -2.2595792 0.35917357 3
-0.36191538 -4.2389503 0.82696623 40
-0.18438341 -2.1551585 -0.1133597 4
-0.36180189 -4.2289081 0.97988689 64
-0.18276441 -2.1318543 -0.037348151 9
-0.35963306 -4.1863585 1.125863 100
-0.17846784 -2.0398962 0.035742529 9
-0.20145471 -2.2980211 0.12089607 1
-0.1968727 -2.2367759 0.19644904 4
-0.19797792 -2.2403791 0.27615595 4
-0.20053414 -2.2647979 0.36011216 3
-0.37618846 -4.2317944 0.82582134 43
-0.19048741 -2.1385868 -0.11252232 4
-0.3751778 -4.2120905 0.9762876 64
-0.1909157 -2.1391704 -0.037487768 10
-0.37390047 -4.1812291 1.1248276 100
-0.1841459 -2.0273442 0.035533097 9
-0.20165251 -2.2157898 0.11660452 1
-0.19631334 -2.1488092 0.18877934 3
-0.20613149 -2.2476175 0.27713093 4
-0.20750119 -2.258219 0.35917357 3
-0.38823614 -4.2090197 0.82162356 47
-0.19702688 -2.1319771 -0.1122083 5
-0.38645375 -4.181716 0.96953917 63
-0.19671793 -2.1245873 -0.037243433 10
-0.38615754 -4.1626539 1.1201688 100
-0.19274279 -2.0466311 0.035882145 11
-0.20018156 -2.1216526 0.11168494 4
-0.20137148 -2.1263275 0.1868619 6
-0.21339595 -2.2449455 0.27688718 4
-0.21423933 -2.2496531 0.35792211 3
-0.40032375 -4.1881657 0.81780744 42
-0.20409578 -2.1313119 -0.1122083 5
-0.39790398 -4.1551938 0.9636904 61
-0.20223431 -2.1079988 -0.036964197 10
-0.39829606 -4.1440439 1.1155102 100
-0.19719955 -2.0220976 0.035463288 11
-0.20721595 -2.1209772 0.11168494 8
-0.20667179 -2.1078022 0.18529311 9
-0.22161672 -2.2521279 0.27786213 4
-0.22169836 -2.2489302 0.35792211 3
-0.41343704 -4.1789999 0.81628096 47
-0.2117531 -2.136586 -0.11252232 6
-0.41091174 -4.1460943 0.96189076 61
-0.207248 -2.0874176 -0.036615148 10
-0.40955058 -4.1177096 1.1087809 100
-0.20299828 -2.005445 0.035184052 10
-0.2149547 -2.1161919 0.1114756 11
-0.21358916 -2.0991018 0.18459585 19
-0.23027276 -2.2552502 0.27834961 4
-0.23033199 -2.2480624 0.35792211 3
-0.42474172 -4.1383967 0.80864859 37
-0.21651876 -2.1059937 -0.11095224 5
-0.42543107 -4.1309161 0.95874143 59
-0.21526182 -2.0866065 -0.036615148 10
-0.42376971 -4.1007333 1.1046398 100
-0.20937242 -1.9987577 0.035079334 11
-0.22171429 -2.1094697 0.11116158 33
-0.22133213 -2.1023066 0.1849445 52
-0.23585008 -2.232717 0.27566847 4
-0.23921855 -2.2570662 0.35948643 2
-0.43752685 -4.1212707 0.80559564 40
-0.2221792 -2.0893366 -0.11011487 5
-0.43799013 -4.1119666 0.95469236 58
-0.22233179 -2.083854 -0.036580246 11
-0.43684927 -4.0877042 1.1015339 100
-0.21548709 -1.9900625 0.034939718 10
-0.22648776 -2.084856 0.10990552 84
-0.22845373 -2.0995405 0.18477017 100
-0.24622713 -2.2555606 0.27859333 4
-0.24774122 -2.2621086 0.36042506 2
-0.4508394 -4.1099606 0.80368757 37
-0.22968918 -2.0905335 -0.11021954 6
-0.44978347 -4.0871677 0.94929355 58
-0.22807087 -2.0691514 -0.036335908 11
-0.45069149 -4.0823135 1.1004987 100
-0.22354351 -1.9992348 0.035114244 11
-0.24117723 -2.1535366 -0.50029123 1
-0.23398654 -2.0860374 0.11001018 100
-0.23667087 -2.1066496 0.18546741 100
-0.25343218 -2.24877 0.27786213 3
-0.25541383 -2.2592671 0.36011216 2
-0.23747003 -2.1005449 -0.1849445 1
-0.46385834 -4.0966568 0.80139786 37
-0.23743527 -2.0936882 -0.11042888 7
-0.46294755 -4.075891 0.94704396 59
-0.23371005 -2.0544345 -0.036091577 11
-0.46340799 -4.0672798 1.0968752 100
-0.22891659 -1.9845368 0.034869909 12
-0.24600905 -2.129451 -0.49489233 1
-0.24264418 -2.0971119 0.11063822 100
-0.24333507 -2.0998735 0.1849445 100
-0.2626555 -2.2597022 0.27932456 3
-0.26329893 -2.2583618 0.36011216 2
-0.24180172 -2.0739763 -0.18267845 1
-0.47769976 -4.0911126 0.80063456 37
-0.24172622 -2.0670581 -0.10906815 7
-0.47603947 -4.0645733 0.94479454 61
-0.24087974 -2.0536063 -0.036091577 14
-0.47377056 -4.0330195 1.0880753 100
-0.23300962 -1.9598969 0.034451049 12
-0.25209117 -2.1141014 0.11158027 90
-0.24995457 -2.0930765 0.18442155 57
-0.2691251 -2.2469459 0.27786213 3
-0.27306509 -2.273119 0.36261514 2
-0.24903958 -2.0731196 -0.18267845 1
-0.48846012 -4.0601821 0.79491037 47
-0.24917908 -2.0681846 -0.10917282 7
-0.48929045 -4.0551481 0.94299495 64
-0.24876644 -2.0587087 -0.036196291 11
-0.48552531 -4.0121632 1.0828989 100
-0.23960657 -1.9570868 0.034416147 13
-0.25849563 -2.105279 0.11116158 38
-0.25920454 -2.108011 0.18581605 14
-0.25421751 -2.0644789 -0.32945102 1
-0.27818185 -2.2558434 0.27908084 3
-0.2819677 -2.279994 0.36386663 2
-0.2550517 -2.062351 -0.18180689 1
-0.50021702 -4.038969 0.79109418 47
-0.25393865 -2.0474813 -0.10812609 7
-0.50104022 -4.0340757 0.93849593 64
-0.25447032 -2.0459213 -0.035986863 10
-0.49833313 -4.0008588 1.0803107 52
-0.24593678 -1.9522705 0.034346335 16
-0.26195315 -2.0764892 -0.48319489 1
-0.26359001 -2.0865302 0.11021954 10
-0.2668114 -2.1090698 0.18599035 8
-0.25993302 -2.0518203 -0.32757381 1
-0.28430551 -2.2410734 0.27737463 2
-0.26268142 -2.0677285 -0.25592566 1
-0.28992498 -2.2789958 0.36386663 2
-0.2617465 -2.0574949 -0.18145825 1
-0.513816 -4.0333033 0.79033089 56
-0.25982025 -2.0366764 -0.10760273 7
-0.51042747 -3.995575 0.92994773 63
-0.26059544 -2.0370865 -0.035847243 10
-0.51082253 -3.9875979 1.0772049 50
-0.25300667 -1.9533833 0.034381241 31
-0.26744559 -2.0620344 -0.48004559 1
-0.27281988 -2.1034706 0.11116158 7
-0.27519947 -2.116029 0.1866876 4
-0.26887918 -2.0646124 -0.32976389 2
-0.29264009 -2.2440045 0.27786213 2
-0.26629898 -2.0392416 -0.25251329 1
-0.29517853 -2.2603931 0.36105078 2
-0.2678934 -2.0486667 -0.18076101 2
-0.52585268 -4.0159125 0.787278 53
-0.26900557 -2.0515997 -0.10844011 10
-0.52259535 -3.9802437 0.92679846 64
-0.26526651 -2.0203497 -0.035568006 20
-0.52152503 -3.9667282 1.0720285 51
-0.26000988 -1.956498 0.034451049 16
-0.27402487 -2.0592046 -0.47959569 1
-0.28332612 -2.1262624 0.11241764 2
-0.29445767 -2.203923 0.19453162 2
-0.27101552 -2.028466 -0.32413223 2
-0.30429128 -2.2745023 0.28176194 3
-0.27437779 -2.0481849 -0.253732 2
-0.30359229 -2.2632644 0.36167651 1
-0.27292114 -2.0319219 -0.17936651 4
-0.53655362 -3.9946885 0.78346181 56
-0.27554104 -2.048717 -0.10833544 12
-0.53579152 -3.9784887 0.92679846 67
-0.27178279 -2.0154481 -0.035498194 28
-0.53252482 -3.9438243 1.0663346 100
-0.26710817 -1.9575599 0.034485955 15
-0.28068358 -2.0543737 -0.47869587 2
-0.54900789 -4.0130625 0.21227466 13
-0.27834567 -2.0346129 -0.39917243 1
-0.30852431 -2.2522833 0.1988894 2
-0.27863121 -2.0314217 -0.32475799 4
-0.30736759 -2.2380271 0.27737463 2
-0.28152546 -2.0472145 -0.253732 3
-0.3144545 -2.2837172 0.36511809 2
-0.27992937 -2.0329795 -0.17954083 3
-0.54834944 -3.9772322 0.7804088 63
-0.28023261 -2.0299361 -0.10739339 10
-0.54754078 -3.9611514 0.92319918 67
-0.28155798 -2.0342951 -0.035847243 11
-0.54337108 -3.920892 1.0606405 50
-0.27449429 -1.9605764 0.034555767 19
-0.28677064 -2.0456622 -0.47689629 3
-0.28380856 -2.0219638 -0.39688274 1
-0.316939 -2.2551384 0.19923802 2
-0.28847316 -2.0499978 -0.3278867 4
-0.31711638 -2.2507002 0.27908084 2
-0.28866988 -2.0462193 -0.253732 2
-0.32242456 -2.2826054 0.36511809 2
-0.28758174 -2.0359356 -0.17988946 2
-0.55700517 -3.9383597 0.77315807 60
-0.28619638 -2.0210357 -0.10697471 7
-0.55835581 -3.9379921 0.91825026 65
-0.28753281 -2.0253804 -0.035707623 10
-0.55569506 -3.9094083 1.0580523 100
-0.28304139 -1.9714825 0.034765195 18
-0.2936326 -2.0427196 -0.47644636 2
-0.29142395 -2.024847 -0.39764598 1
-0.32878742 -2.2816269 0.20167838 2
-0.2956273 -2.0489783 -0.3278867 2
-0.32298416 -2.2358265 0.27737463 2
-0.29382172 -2.0314469 -0.25202581 2
-0.32897466 -2.2716913 0.36355373 2
-0.29704291 -2.0486701 -0.18110962 2
-0.57103109 -3.9383345 0.77353972 68
-0.2961188 -2.0397897 -0.10802142 6
-0.56817394 -3.9090207 0.91195166 63
-0.29661712 -2.0382164 -0.035951961 9
-0.56933814 -3.9074447 1.0580523 100
-0.29050341 -1.9744394 0.034835003 19
-0.3027491 -2.0551779 -0.47959569 2
-0.34795651 -2.3592055 0.12497827 1
-0.30171171 -2.0431874 -0.40146214 1
-0.33685619 -2.2784355 0.20150407 2
-0.30226746 -2.0420187 -0.32694808 2
-0.33543754 -2.2661047 0.28127447 2
-0.30353022 -2.0480816 -0.25421947 1
-0.33574241 -2.2627134 0.36230227 1
-0.30477789 -2.0515623 -0.18145825 3
-0.58430666 -3.928447 0.77201319 71
-0.30712342 -2.0623963 -0.10927749 7
-0.58077323 -3.8953471 0.90925223 63
-0.30255026 -2.0292573 -0.035812337 11
-0.57955128 -3.8825054 1.0518407 100
-0.29893154 -1.9812707 0.034974623 14
-0.31057078 -2.0559812 -0.48004559 1
-0.34286249 -2.2670734 0.12016336 4
-0.30619958 -2.0246513 -0.3980276 1
-0.34510598 -2.2792156 0.20167838 2
-0.30880132 -2.0370452 -0.32632235 2
-0.34105995 -2.2471967 0.27908084 2
-0.31312227 -2.0606933 -0.25592566 2
-0.34789586 -2.286855 0.36636955 1
-0.31223702 -2.0524557 -0.18163256 3
-0.59624249 -3.9147387 0.76972359 68
-0.31642795 -2.0751324 -0.11001018 9
-0.59230846 -3.879811 0.90610296 61
-0.31240293 -2.0439487 -0.036091577 11
-0.5911476 -3.8631685 1.0471818 100
-0.30615094 -1.9821913 0.035009526 18
-0.31863904 -2.0606623 -0.48139527 2
-0.35169068 -2.2717841 0.12047738 6
-0.31837106 -2.0565524 -0.40451509 1
-0.35061842 -2.2622461 0.20028389 2
-0.31742451 -2.0457146 -0.3278867 3
-0.35133985 -2.2616849 0.28103071 2
-0.32244873 -2.0733182 -0.25763181 3
-0.35435688 -2.2758675 0.36480519 1
-0.32001266 -2.0552905 -0.18198119 5
-0.60567051 -3.8854756 0.76438087 71
-0.32243755 -2.0661218 -0.10959151 9
-0.60675049 -3.8834963 0.90745264 63
-0.32169896 -2.0566754 -0.036335908 14
-0.60193926 -3.8439043 1.0425231 100
-0.32861918 -2.0818739 -0.56474322 1
-0.31306803 -1.9811106 0.035009526 20
-0.32704827 -2.0672364 -0.48319489 3
-0.36399278 -2.2981603 0.1219428 1
-0.32769769 -2.0690022 -0.40718642 2
-0.36319309 -2.2905257 0.20289856 1
-0.32518288 -2.0484962 -0.32851243 4
-0.35736313 -2.2486818 0.27956831 2
-0.32812479 -2.0623779 -0.25641313 4
-0.36354169 -2.2824199 0.36605671 1
-0.3293786 -2.067934 -0.18320136 6
-0.61613786 -3.8639505 0.76056474 66
-0.32964802 -2.0649838 -0.10959151 9
-0.6163044 -3.8563385 0.90160394 61
-0.33203521 -2.0752857 -0.036684956 12
-0.61474228 -3.8379645 1.0414879 100
-0.33649981 -2.0845284 -0.56577843 2
-0.32189593 -1.9918503 0.035218958 20
-0.33395088 -2.0641587 -0.48274499 3
-0.33617327 -2.0755978 -0.40871289 2
-0.37086779 -2.2872772 0.20272426 2
-0.33644614 -2.0726967 -0.33257973 4
-0.36934969 -2.2728927 0.2827369 1
-0.33468419 -2.0573015 -0.25592566 4
-0.37150669 -2.281137 0.36605671 1
-0.34011796 -2.088403 -0.18511879 6
-0.63025373 -3.8656514 0.76132792 63
-0.33653221 -2.0618494 -0.10948683 9
-0.62661928 -3.8349311 0.89710486 71
-0.34024608 -2.0800345 -0.036789671 14
-0.62626207 -3.8243566 1.0383821 100
-0.34345961 -2.081435 -0.56526077 2
-0.33145398 -2.0064983 0.035498194 20
-0.34306177 -2.0745161 -0.4854444 3
-0.34213409 -2.0666637 -0.40718642 2
-0.38047814 -2.2957966 0.20359582 1
-0.34658903 -2.0890484 -0.33539551 5
-0.3779318 -2.275506 0.28322437 1
-0.34609586 -2.0815773 -0.25909427 4
-0.38011578 -2.2837236 0.36668244 1
-0.3494074 -2.0969689 -0.18599035 8
-0.64083952 -3.845999 0.75789338 69
-0.34767079 -2.0843027 -0.1107429 11
-0.63775527 -3.8192656 0.89395553 72
-0.34552628 -2.0670004 -0.036580246 15
-0.63705754 -3.8069043 1.034241 49
-0.3501215 -2.0744479 -0.56370795 1
-0.34111816 -2.0211036 0.035777435 28
-0.35192448 -2.0829136 -0.48769394 3
-0.65183818 -3.8538997 0.20484295 5
-0.35167304 -2.0770104 -0.40947613 3
-0.38755831 -2.2865291 0.20289856 1
-0.35688677 -2.1033442 -0.33789849 6
-0.38653645 -2.2780871 0.28371185 1
-0.35402495 -2.0842705 -0.25958171 3
-0.38874748 -2.2862773 0.36730817 1
-0.35605624 -2.0918083 -0.18564174 9
-0.65394223 -3.8378181 0.7567485 70
-0.3536287 -2.0731702 -0.11021954 10
-0.65076488 -3.8111398 0.89260584 71
-0.35273916 -2.0657816 -0.036580246 12
-0.64611042 -3.7799025 1.0275117 51
-0.36228311 -2.1017694 -0.57147247 2
-0.34682372 -2.0099866 0.035602912 26
-0.36121461 -2.0912113 -0.48994344 4
-0.36884812 -2.1354046 0.11356904 1
-0.36193129 -2.0931809 -0.41291067 3
-0.3955375 -2.2851622 0.20289856 1
-0.36152878 -2.0865147 -0.33539551 6
-0.39454433 -2.2746997 0.28346813 1
-0.36641583 -2.1103406 -0.26299405 4
-0.39740133 -2.288799 0.3679339 1
-0.3674503 -2.1141081 -0.18773346 10
-0.66194999 -3.804565 0.75064266 73
-0.36326197 -2.0856967 -0.11095224 8
-0.66105253 -3.7915668 0.88855672 72
-0.3630394 -2.0822675 -0.036894388 11
-0.65564734 -3.7566903 1.0218177 100
-0.37162605 -2.1119077 -0.57457829 2
-0.35487321 -2.0167034 0.035742529 26
-0.3661193 -2.0784867 -0.48724401 4
-0.37128302 -2.1035051 -0.41520041 4
-0.40489849 -2.2916157 0.20359582 1
-0.37291408 -2.1105924 -0.33946282 9
-0.4024311 -2.2753332 0.28371185 1
-0.37445024 -2.1149781 -0.26372528 20
-0.40538839 -2.2873981 0.3679339 1
-0.37413144 -2.1088891 -0.18738484 26
-0.67216229 -3.7888174 0.7479713 76
-0.37436712 -2.1080785 -0.1122083 9
-0.67089325 -3.7740047 0.88495749 72
-0.3752102 -2.1085505 -0.037383057 15
-0.6677404 -3.7486727 1.0202647 52
-0.37896851 -2.1125653 -0.57509595 2
-0.36544523 -2.0351343 0.036091577 27
-0.37509593 -2.086786 -0.48949352 5
-0.68371457 -3.8037367 0.20254017 55
-0.38034251 -2.1138558 -0.41749012 4
-0.41461462 -2.3020253 0.20464167 1
-0.38098013 -2.1131659 -0.34008855 26
-0.41037083 -2.2739146 0.28371185 1
-0.38041911 -2.1058443 -0.26275033 18
-0.41578084 -2.3015921 0.37043685 1
-0.38289544 -2.1174397 -0.1882564 34
-0.68258584 -3.7709932 0.74491841 78
-0.3806552 -2.1008627 -0.11189428 11
-0.68128085 -3.7563 0.88135833 80
-0.38005918 -2.0954888 -0.037173625 13
-0.68016791 -3.7464378 1.0202647 52
-0.38842672 -2.1226313 -0.57820177 3
-0.37435129 -2.0457134 0.036301006 26
-0.38412067 -2.0970318 -0.49219295 4
-0.6941064 -3.7856104 0.20170279 55
-0.38949123 -2.1221702 -0.41939822 11
-0.42048743 -2.2888067 0.20359582 1
-0.38941315 -2.1196625 -0.34134007 31
-0.41934538 -2.2803509 0.28468683 1
-0.38704094 -2.1026189 -0.26250657 22
-0.42238042 -2.2923565 0.36918539 1
-0.39064556 -2.1180496 -0.18843071 36
-0.69508731 -3.7687092 0.74491841 78
-0.40031096 -2.1683316 -0.1155578 10
-0.68948406 -3.7310247 0.87595952 72
-0.38846278 -2.1000485 -0.037278343 10
-0.69042718 -3.7288442 1.0161237 52
-0.39227745 -2.1042392 -0.57354301 4
-0.38369107 -2.0561888 0.036510434 26
-0.39322719 -2.1052563 -0.49444246 6
-0.70621544 -3.7772753 0.20138879 62
-0.39941272 -2.1363051 -0.42245111 23
-0.42880812 -2.2913165 0.20394444 2
-0.39790097 -2.124115 -0.34227866 28
-0.42620525 -2.2730198 0.2839556 1
-0.39877215 -2.1246676 -0.26543146 24
-0.4281913 -2.2792194 0.36730817 1
-0.39619568 -2.1089101 -0.18773346 40
-0.70533621 -3.7508242 0.7418654 76
-0.41231066 -2.1904745 -0.11681387 11
-0.7014212 -3.7228501 0.87460977 75
-0.39801449 -2.1104698 -0.037487768 13
-0.6984219 -3.6998353 1.0088767 100
-0.40142336 -2.1123466 -0.57613122 4
-0.38937131 -2.0469792 0.036370814 27
-0.40203175 -2.1115282 -0.49624205 5
-0.71790081 -3.7669392 0.20097008 63
-0.40944031 -2.1483982 -0.42512247 29
-0.43680349 -2.2898057 0.20394444 1
-0.40420172 -2.1168921 -0.34134007 25
-0.43786353 -2.2910161 0.28639299 1
-0.40618598 -2.1232626 -0.26543146 24
-0.43874526 -2.291292 0.36949828 1
-0.40280542 -2.1036005 -0.18738484 34
-0.71398962 -3.7252011 0.73728597 78
-0.41995466 -2.1890218 -0.11681387 9
-0.71367681 -3.7165515 0.87370998 71
-0.40613371 -2.1129954 -0.03755758 12
-0.70914316 -3.6859922 1.0057708 100
-0.41173276 -2.1261055 -0.58027232 3
-0.39803663 -2.0534601 0.036510434 26
-0.41051325 -2.1158512 -0.49759176 6
-0.72952211 -3.756568 0.20055141 63
-0.4169369 -2.146956 -0.42512247 30
-0.44821557 -2.3058689 0.20551322 2
-0.41272014 -2.1212854 -0.34227866 26
-0.44396055 -2.2797315 0.28517428 1
-0.41511452 -2.1296253 -0.26640642 27
-0.45014521 -2.3071957 0.37231407 1
-0.41396126 -2.1217368 -0.18912795 40
-0.72397852 -3.7072713 0.73423308 76
-0.43104127 -2.205184 -0.1177559 9
-0.7240265 -3.70065 0.87056065 70
-0.41619712 -2.1253016 -0.037801914 17
-0.72051865 -3.6759114 1.0037004 100
-0.42289093 -2.1436086 -0.58544868 3
-0.40636408 -2.0579436 0.036615148 25
-0.41940784 -2.1220522 -0.49939135 7
-0.73759186 -3.7285275 0.19919068 26
-0.42290467 -2.1377835 -0.42359596 19
-0.45510066 -2.2984271 0.2049903 2
-0.42204249 -2.1295204 -0.34384301 32
-0.45307469 -2.2840092 0.28590551 1
-0.42138582 -2.1223221 -0.26567519 33
-0.4555009 -2.292048 0.37012401 1
-0.4229185 -2.1280956 -0.18982521 40
-0.73538291 -3.6970196 0.73270655 78
-0.43912598 -2.2056248 -0.11786059 8
-0.73275054 -3.6770775 0.86561173 71
-0.42596024 -2.1356027 -0.038011342 18
-0.73145467 -3.6639016 1.0011121 100
-0.43189305 -2.1496954 -0.58751929 2
-0.41788152 -2.0780778 0.036999103 24
-0.43027338 -2.1377692 -0.5034405 8
-0.43075216 -2.1382189 -0.42397761 23
-0.461546 -2.2890122 0.20429306 4
-0.43025494 -2.1319067 -0.34446874 25
-0.46418875 -2.2979803 0.28785542 1
-0.43036541 -2.1286211 -0.26665017 28
-0.46428224 -2.2943163 0.37074974 1
-0.43232 -2.1363704 -0.19069678 42
-0.74672419 -3.6867335 0.73118013 78
-0.4599179 -2.2686741 -0.12131476 9
-0.74170637 -3.6553988 0.86111265 68
-0.43182012 -2.1262636 -0.037871722 17
-0.74154592 -3.6480739 0.99748862 100
-0.43939406 -2.1481748 -0.58751929 1
-0.42633632 -2.0824835 0.037103817 25
-0.43968865 -2.1457996 -0.50569004 7
-0.5252533 -2.561105 0.13701554 1
-0.44018525 -2.1463182 -0.42588571 25
-0.46793061 -2.2795804 0.20359582 5
-0.44087446 -2.1458716 -0.34697169 27
-0.47420663 -2.3060677 0.28907412 1
-0.44019392 -2.138772 -0.26811257 15
-0.47029537 -2.2830081 0.36918539 1
-0.44017676 -2.1367998 -0.19087107 34
-0.75800353 -3.6764131 0.7296536 78
-0.75446129 -3.6527877 0.86111265 68
-0.44045433 -2.1306183 -0.037976436 12
-0.75036097 -3.6265452 0.99231225 100
-0.43360275 -2.0809827 0.037103817 25
-0.44717631 -2.1442518 -0.50569004 8
-0.53908747 -2.5827177 0.13827161 1
-0.4504829 -2.1582215 -0.42855701 21
-0.47425503 -2.2701318 0.20289856 4
-0.44876659 -2.1462531 -0.34728456 26
-0.4794071 -2.2907972 0.28736794 1
-0.44969153 -2.1469369 -0.26933128 13
-0.47826177 -2.2813525 0.36918539 1
-0.44804177 -2.1372004 -0.19104539 23
-0.76559055 -3.6487663 0.72469258 73
-0.4847753 -2.3084099 -0.12361754 56
-0.7664057 -3.6463177 0.86021286 68
-0.45282868 -2.1525502 -0.038395293 12
-0.75983179 -3.6087806 0.9881711 100
-0.44003472 -2.0755441 0.037034009 23
-0.45506293 -2.1445839 -0.50613987 6
-0.54892915 -2.5847275 0.13848096 1
-0.45842147 -2.1585562 -0.42893866 11
-0.48631915 -2.287951 0.20464167 2
-0.45707762 -2.1485379 -0.34791031 14
-0.4840931 -2.2735772 0.285418 1
-0.46007952 -2.1589446 -0.27103746 11
-0.48704639 -2.2835329 0.36981112 1
-0.46131772 -2.1629031 -0.19348574 16
-0.77504331 -3.6307118 0.72163963 75
-0.77586919 -3.6283751 0.85661364 68
-0.46326894 -2.1646445 -0.038639627 11
-0.77161455 -3.6023285 0.98713589 100
-0.4464339 -2.0700858 0.036964197 6
-0.46377966 -2.1486971 -0.50748962 6
-0.56343079 -2.6081746 0.13984169 1
-0.4667826 -2.1607809 -0.42970186 10
-0.49893388 -2.3076611 0.20655911 2
-0.47042367 -2.1739593 -0.35229045 17
-0.48950574 -2.2602332 0.2839556 1
-0.46971524 -2.1670258 -0.27225614 12
-0.49501422 -2.2818189 0.36981112 1
-0.47389224 -2.182615 -0.19540317 25
-0.78729612 -3.6260655 0.72125804 76
-0.46779799 -2.1527357 -0.11545313 9
-0.78314567 -3.6008897 0.85076493 72
-0.47039714 -2.1610601 -0.038604725 11
-0.78171718 -3.5882878 0.98403007 100
-0.45965433 -2.0958605 0.037452865 12
-0.47629091 -2.1699064 -0.51288843 8
-0.56953186 -2.5925367 0.13910899 1
-0.4730126 -2.151386 -0.42817542 6
-0.50910127 -2.3136001 0.20725635 3
-0.48263705 -2.1915116 -0.35541913 19
-0.4999539 -2.2701423 0.285418 1
-0.47941315 -2.1750658 -0.27347484 17
-0.50552952 -2.291651 0.37168834 1
-0.79888678 -3.6154876 0.71973157 76
-0.47180399 -2.1334558 -0.11451109 2
-0.79507506 -3.5922873 0.84941524 75
-0.47707334 -2.1555002 -0.038534917 11
-0.79173118 -3.5742202 0.98092425 100
-0.47212395 -2.1156304 0.03783682 24
-0.48678917 -2.1795573 -0.51558787 8
-0.58295137 -2.6079743 0.14005104 1
-0.48651552 -2.1765451 -0.43351805 8
-0.51760918 -2.3137531 0.20743066 1
-0.48812574 -2.1801753 -0.35385481 4
-0.5169521 -2.3070362 0.2902928 1
-0.51132959 -2.2782183 0.36981112 1
-0.48911771 -2.1792538 -0.19540317 7
-0.80849004 -3.5992684 0.71706021 75
-0.49019974 -2.1805112 -0.11712788 20
-0.80632687 -3.5837862 0.84806556 80
-0.47574544 -2.1127691 -0.037801914 6
-0.80015379 -3.5505641 0.97523022 100
-0.53846252 -2.3758094 -0.65274167 1
-0.4786213 -2.110069 0.037767008 24
-0.49482605 -2.1797452 -0.51603776 8
-0.59736097 -2.6292951 0.14130709 1
-0.49671966 -2.1863205 -0.43580776 8
-0.52479881 -2.3080468 0.20708205 1
-0.4913502 -2.1591969 -0.3507261 1
-0.52500182 -2.3052175 0.2902928 1
-0.49761188 -2.1831923 -0.27493724 2
-0.52630848 -2.307234 0.37481701 1
-0.49982378 -2.1911302 -0.19662334 13
-0.81536847 -3.571542 0.71209919 76
-0.50314659 -2.2021518 -0.11838394 18
-0.81361872 -3.5581534 0.84266675 63
-0.49962294 -2.1832199 -0.03909339 20
-0.80434847 -3.5119705 0.96539509 59
-0.579705 -2.5169904 -0.69208211 2
-0.48778063 -2.1161802 0.037906628 24
-0.50374568 -2.1837015 -0.51738745 8
-0.61056626 -2.6467612 0.1423538 1
-0.50699818 -2.1960506 -0.43809745 8
-0.53285229 -2.306201 0.20708205 1
-0.50867474 -2.1998096 -0.35760921 9
-0.5397588 -2.3323805 0.29394889 1
-0.50970894 -2.2007809 -0.27737463 12
-0.54108804 -2.336267 0.37982294 1
-0.50836873 -2.193254 -0.19697197 13
-0.81407779 -3.5093875 0.70026904 12
-0.50676566 -2.1828725 -0.1174419 11
-0.51002777 -2.1951859 -0.039337724 13
-0.8063646 -3.4678874 0.95400703 27
-0.59156859 -2.5281188 -0.69570565 2
-0.4979848 -2.1281805 0.038150962 22
-0.51142871 -2.1839161 -0.51783735 8
-0.62025702 -2.6465583 0.14245848 1
-0.51421249 -2.1923563 -0.43771586 2
-0.5445416 -2.319844 0.20847654 1
-0.51867539 -2.2096493 -0.35948643 12
-0.54749066 -2.3305779 0.29394889 1
-0.5160954 -2.1952138 -0.27688718 11
-0.54471546 -2.3151355 0.37669426 1
-0.51647854 -2.1934054 -0.19714628 10
-0.82076132 -3.4856479 0.69607127 12
-0.5172081 -2.194788 -0.11817461 12
-0.81947917 -3.4747679 0.82422072 11
-0.52136242 -2.208962 -0.039616965 10
-0.81757677 -3.4612916 0.95297176 25
-0.59637785 -2.5111065 -0.6915645 2
-0.50725991 -2.1342113 0.038290579 22
-0.52130347 -2.191597 -0.52008688 7
-0.63180447 -2.6540918 0.14298184 1
-0.52329844 -2.1982787 -0.43924233 6
-0.52455264 -2.2001393 -0.35823497 10
-0.52467716 -2.1972604 -0.27737463 7
-0.55646652 -2.3285899 0.37919718 1
-0.52922928 -2.2129047 -0.19906372 8
-0.83155322 -3.4770334 0.69492638 12
-0.52812052 -2.2065661 -0.1189073 10
-0.82888025 -3.4605153 0.82152128 11
-0.52720517 -2.1993501 -0.039477345 13
-0.82920301 -3.456538 0.95245409 25
-0.60331088 -2.4995146 -0.68897635 2
-0.51705265 -2.1421468 0.038465101 21
-0.53169584 -2.2011294 -0.52278626 7
-0.6396569 -2.6460462 0.14266783 1
-0.53596824 -2.2154281 -0.44305849 6
-0.53307825 -2.2001216 -0.35854784 7
-0.53655398 -2.2127783 -0.27956831 9
-0.56459147 -2.3266335 0.37919718 1
-0.5416522 -2.2304049 -0.20080683 11
-0.85031897 -3.4987626 0.69988745 16
-0.53809255 -2.2123785 -0.119326 12
-0.84662741 -3.4782822 0.82647026 13
-0.53629798 -2.2033253 -0.039582059 12
-0.84446406 -3.4667614 0.95607764 42
-0.61249202 -2.4992695 -0.68949395 2
-0.52490056 -2.1402373 0.038465101 20
-0.54161817 -2.2067361 -0.52458584 5
-0.65507883 -2.6690133 0.14402856 1
-0.54416668 -2.2154503 -0.44344014 7
-0.54500192 -2.2155111 -0.36136368 9
-0.54750955 -2.2223616 -0.28103071 9
-0.57837969 -2.3476648 0.38295162 1
-0.54705012 -2.2188284 -0.19993527 11
-0.86111599 -3.4900551 0.69874257 15
-0.55059952 -2.229877 -0.12037271 17
-0.86016625 -3.4809811 0.82781988 15
-0.54734367 -2.2150288 -0.039826389 18
-0.85563272 -3.4600413 0.9550423 33
-0.62401068 -2.5083647 -0.69259977 2
-0.53344327 -2.1443067 0.038569819 20
-0.54846179 -2.203037 -0.52413601 2
-0.66728824 -2.6783385 0.1446566 1
-0.55474651 -2.224967 -0.44572985 7
-0.55664968 -2.2309413 -0.36417946 10
-0.55872619 -2.2359409 -0.28298062 10
-0.57698691 -2.3073041 0.37669426 1
-0.55769378 -2.2285018 -0.20098113 11
-0.87173116 -3.4833713 0.69797933 16
-0.55410945 -2.2125394 -0.11953534 11
-0.87028378 -3.4724388 0.82647026 17
-0.5584774 -2.2266819 -0.040070724 12
-0.86535394 -3.447665 0.95245409 34
-0.63327026 -2.5100279 -0.69363505 2
-0.54435158 -2.1560035 0.038814154 21
-0.55662614 -2.2029984 -0.52458584 6
-0.67271626 -2.6605027 0.14381923 1
-0.56549042 -2.2364385 -0.44840118 10
-0.5649187 -2.2308998 -0.36449236 10
-0.56408787 -2.2243559 -0.28176194 9
-0.59086818 -2.3282523 0.38044867 1
-0.57488281 -2.2652638 -0.20446737 10
-0.88243538 -3.4745984 0.6968345 17
-0.5815081 -2.2880204 -0.12372221 11
-0.87759578 -3.4504938 0.82197124 12
-0.58252406 -2.2886703 -0.041222587 10
-0.87499917 -3.4352629 0.94986594 31
-0.63963276 -2.4984443 -0.69104689 2
-0.55634075 -2.1715245 0.039128296 23
-0.57350796 -2.2369082 -0.53313404 9
-0.67703581 -2.638792 0.14277251 1
-0.57231808 -2.2306476 -0.44763795 9
-0.58597523 -2.2805712 -0.3729398 7
-0.88042593 -3.4240699 0.43409866 3
-0.59460419 -2.3108068 -0.29297391 8
-0.61475432 -2.3873909 0.39046046 1
-0.59669769 -2.3172679 -0.2093481 10
-0.89161927 -3.4600902 0.69454479 15
-0.59846836 -2.3207884 -0.12560631 12
-0.88525289 -3.4304268 0.81792206 11
-0.5905093 -2.286623 -0.041222587 11
-0.88650155 -3.4303176 0.94934833 25
-0.64543593 -2.4849777 -0.68794107 3
-0.56592965 -2.1773107 0.039267913 22
-0.59848237 -2.3009019 -0.54888058 7
-0.66460884 -2.5532999 0.13827161 7
-0.60037714 -2.3065341 -0.46328428 9
-0.68904614 -2.6452897 0.23915535 1
-0.60738593 -2.3301227 -0.38138729 9
-0.6041708 -2.3144794 -0.29370514 8
-0.90167522 -3.4517033 0.56504136 11
-0.60579026 -2.319026 -0.20969671 10
-0.89971918 -3.4417613 0.69149184 12
-0.61010385 -2.332211 -0.126339 10
-0.8987022 -3.4329715 0.8192718 10
-0.60102141 -2.29422 -0.04139711 11
-0.89210153 -3.4029088 0.94261903 25
-0.65312159 -2.4789734 -0.68690574 3
-0.57301676 -2.1733885 0.03923301 21
-0.61695039 -2.3383684 -0.55832857 7
-0.67402732 -2.5528955 0.13837628 3
-0.61544126 -2.3309994 -0.46862692 10
-0.7003116 -2.6505735 0.23985259 1
-0.61147618 -2.3127103 -0.37888432 8
-0.90786278 -3.4312735 0.43580481 13
-0.6198675 -2.3411407 -0.29736122 8
-0.91169429 -3.440897 0.56378984 11
-0.61541212 -2.3226752 -0.21021965 10
-0.90870929 -3.4272137 0.68920213 11
-0.61977804 -2.3358583 -0.12665303 12
-0.91167992 -3.4335804 0.82017159 10
-0.61621523 -2.3191648 -0.041885775 11
-0.90049964 -3.3867054 0.93899554 24
-0.66177124 -2.4766784 -0.68690574 3
-0.58369905 -2.1829658 0.039442439 20
-0.62460506 -2.3343179 -0.55787861 8
-0.68241799 -2.5485978 0.13827161 6
-0.62458986 -2.3326294 -0.46939012 9
-0.71265364 -2.6596596 0.24089848 1
-0.62517256 -2.3315494 -0.38232586 8
-0.90028566 -3.3552272 0.42654276 20
-0.6280359 -2.3389628 -0.29736122 9
-0.91857421 -3.4186165 0.5606612 10
-0.62972045 -2.3436024 -0.21231139 10
-0.91658849 -3.4088535 0.68614918 12
-0.6284467 -2.3356094 -0.1267577 11
-0.91758025 -3.4077966 0.81477278 11
-0.63054973 -2.3401697 -0.042304631 11
-0.91130978 -3.3798108 0.93796021 24
-0.67445379 -2.4892702 -0.69104689 3
-0.59497833 -2.1944251 0.039686773 17
-0.63377059 -2.335885 -0.55877846 8
-0.67718011 -2.4941583 0.13544546 10
-0.63941562 -2.3550658 -0.47435117 10
-0.72924638 -2.6840734 0.24333882 1
-0.64159983 -2.3598516 -0.38733178 8
-0.90678078 -3.3329093 0.42410538 30
-0.63723928 -2.3405869 -0.2978487 8
-0.92894375 -3.4096715 0.55972254 10
-0.63999206 -2.3490794 -0.21300863 10
-0.92744929 -3.401845 0.68538594 11
-0.63869846 -2.3411088 -0.12717639 10
-0.92228448 -3.3782537 0.80847412 11
-0.64240366 -2.3514576 -0.042548969 11
-0.92361194 -3.3784726 0.93847787 24
-0.67955697 -2.4738607 -0.68742341 4
-0.60687494 -2.2077606 0.039966013 14
-0.64657176 -2.350569 -0.56282759 7
-0.67051101 -2.4359357 0.13240999 2
-0.64450639 -2.3414624 -0.47206149 9
-0.74707663 -2.7122455 0.24612781 1
-0.64825839 -2.3518846 -0.38639316 8
-0.91418678 -3.3144147 0.42215544 36
-0.64963114 -2.3536568 -0.29979861 8
-0.93558067 -3.3873672 0.55659389 10
-0.65296161 -2.3641155 -0.21457744 7
-0.93984139 -3.4004791 0.68576753 9
-0.65378779 -2.3638899 -0.12853712 9
-0.93199211 -3.3675013 0.80667454 11
-0.6527428 -2.3569093 -0.042688586 10
-0.92972368 -3.3547494 0.93278384 24
-0.68456084 -2.4584465 -0.68379998 4
-0.62048203 -2.2268181 0.040349964 19
-0.65791303 -2.3595607 -0.56552702 6
-0.67471582 -2.4181902 0.1315726 2
-0.65531391 -2.3486536 -0.47396958 6
-0.76082593 -2.724973 0.24752231 1
-0.65859061 -2.3572176 -0.38764465 6
-0.92788833 -3.3188505 0.42313039 36
-0.66319114 -2.3704917 -0.30223599 8
-0.94313926 -3.3688631 0.55409092 10
-0.66443318 -2.3733337 -0.21562332 11
-0.94852757 -3.3858349 0.68347788 12
-0.66742623 -2.3808246 -0.12958384 12
-0.94268864 -3.3604748 0.80577475 11
-0.6631279 -2.3623178 -0.04282821 9
-0.93620366 -3.3328853 0.92760748 23
-0.69366264 -2.457901 -0.68431759 4
-0.62118602 -2.199621 0.039896201 14
-0.67621475 -2.3928802 -0.5740751 4
-0.6725902 -2.3784676 -0.48045707 8
-0.77141804 -2.7261348 0.24787092 1
-0.67327291 -2.3777122 -0.39139909 7
-0.9340561 -3.2964923 0.42069301 23
-0.67416924 -2.3777113 -0.30345467 8
-0.94410908 -3.3275428 0.54783356 18
-0.67325717 -2.3729165 -0.21579762 10
-0.95551485 -3.3655059 0.68004328 12
-0.67518741 -2.3765593 -0.12947917 11
-0.95121545 -3.345917 0.80307531 11
-0.67574686 -2.3753753 -0.043107443 10
-0.94571674 -3.3221648 0.92553693 26
-0.70489419 -2.4647517 -0.68690574 4
-0.63711351 -2.2262771 0.040419776 13
-0.70548642 -2.4635694 -0.59162134 4
-0.68359256 -2.3855417 -0.48236516 9
-0.79960173 -2.7885425 0.25379753 1
-0.68156832 -2.3753476 -0.39139909 8
-0.9373399 -3.2645917 0.41703692 16
-0.68410951 -2.3810675 -0.3041859 8
-0.95571876 -3.3242271 0.54783356 50
-0.68263721 -2.3743815 -0.21614623 10
-0.96291459 -3.3470562 0.67699033 12
-0.68403125 -2.3761072 -0.12958384 12
-0.95803422 -3.3257232 0.79902625 11
-0.68791151 -2.3864524 -0.043351781 11
-0.95570093 -3.3132751 0.92398405 26
-0.71618187 -2.4715538 -0.68949395 4
-0.64933562 -2.239404 0.040699009 15
-0.80259544 -2.7661548 -0.66495538 3
-0.71782172 -2.4723697 0.1349221 2
-0.6935575 -2.3887975 -0.48351002 8
-0.98275846 -3.3826776 0.30818272 5
-0.6953705 -2.3919222 -0.39452776 8
-0.95205683 -3.2727363 0.41849938 22
-0.69519067 -2.3881948 -0.3054046 10
-0.97173619 -3.3360431 0.55033648 21
-0.69649315 -2.391113 -0.21788934 9
-0.9734934 -3.3399048 0.67622709 11
-0.69455796 -2.3813746 -0.13000253 11
-0.96636164 -3.3111343 0.79632682 10
-0.69904065 -2.3936343 -0.043526303 10
-0.96455169 -3.300647 0.92139584 23
-0.717731 -2.4449415 -0.68276465 7
-0.65940279 -2.2447984 0.040838633 14
-0.82048941 -2.7913809 -0.67170388 3
-0.72362971 -2.4602683 0.13439874 3
-0.70299983 -2.3901286 -0.48427325 9
-0.71041209 -2.4122195 -0.39828217 8
-0.96291351 -3.2674892 0.41825563 25
-0.705769 -2.3933697 -0.30637956 9
-0.9772253 -3.31179 0.54689491 10
-0.71272939 -2.4154205 -0.22032972 10
-0.98125404 -3.3233061 0.67355579 11
-0.70852584 -2.3980894 -0.13104925 10
-0.97515142 -3.2983971 0.79407728 11
-0.7073918 -2.3911796 -0.043526303 9
-0.97332513 -3.2879982 0.91880763 26
-0.72405839 -2.4350145 -0.6806941 11
-0.67122692 -2.2558994 0.041082963 12
-0.82744741 -2.7791615 -0.6694544 1
-0.72765118 -2.4424145 0.13356137 3
-0.71302027 -2.3933048 -0.48541811 8
-0.99553508 -3.3394563 0.30487078 65
-0.71995747 -2.4135108 -0.39890796 6
-0.97204232 -3.2564993 0.41728067 32
-0.71695948 -2.4004018 -0.30759826 6
-0.99273956 -3.3216074 0.54908502 11
-0.72329021 -2.4185185 -0.22085266 10
-0.99341112 -3.3217416 0.67393738 11
-0.72548115 -2.4243031 -0.13261932 12
-0.98554105 -3.2912393 0.79317749 11
-0.72032607 -2.4040203 -0.043805543 11
-0.97924805 -3.2660761 0.91363126 25
-0.73130614 -2.426795 -0.67914116 12
-0.67967421 -2.2554576 0.041117873 12
-0.84164464 -2.7911823 -0.67305356 2
-0.79213542 -2.6253347 0.14371455 19
-0.7240569 -2.3981934 -0.48694456 3
-1.0048872 -3.3262489 0.30399922 72
-0.73222822 -2.4222009 -0.40078515 6
-0.97708517 -3.2321844 0.41459954 13
-0.73338032 -2.4244854 -0.31101057 9
-1.002039 -3.310559 0.54783356 10
-0.73172814 -2.4159791 -0.22085266 11
-0.99931622 -3.2974107 0.6697396 12
-0.73436183 -2.4216278 -0.13261932 13
-0.99420202 -3.2764163 0.79047805 10
-0.73742276 -2.4301944 -0.044329114 14
-0.9906432 -3.2626376 0.91363126 27
-0.74146473 -2.4297707 -0.6806941 16
-0.69202423 -2.2663388 0.041362204 12
-0.85300773 -2.7918062 -0.67395335 3
-0.74978167 -2.4524248 0.13439874 6
-0.73873812 -2.4163032 -0.49114239 6
-1.0159087 -3.3208158 0.3038249 80
-0.74125677 -2.4215193 -0.40109801 6
-0.98659974 -3.2209892 0.41362458 10
-0.74458885 -2.429373 -0.31198555 7
-1.0130078 -3.3030872 0.54720783 11
-0.74716717 -2.4362681 -0.22294438 10
-1.0039083 -3.2713797 0.66516018 11
-0.73343009 -2.3885012 -0.13094458 7
-1.0044881 -3.2692003 0.78957826 11
-0.74632502 -2.4274752 -0.044329114 13
-0.99748206 -3.2423668 0.9089725 22
-0.75222266 -2.4345508 -0.68276465 12
-0.70170307 -2.2696409 0.041466918 11
-0.86102015 -2.7832265 -0.67260373 3
-0.75065958 -2.4249897 0.13303801 6
-0.75529563 -2.4399664 -0.49648505 8
-1.0274944 -3.3172493 0.3038249 66
-0.75438368 -2.4340115 -0.40360096 5
-0.99548477 -3.2099419 0.41264963 9
-0.7518878 -2.4229674 -0.31149808 7
-1.0216026 -3.2900984 0.54564345 11
-0.73616958 -2.3708534 -0.2171921 5
-1.0129911 -3.2603564 0.6636337 9
-0.75836527 -2.4393284 -0.13387538 10
-1.0135783 -3.2582309 0.78777862 11
-0.75717115 -2.4324923 -0.044468731 11
-1.0087941 -3.2388651 0.9089725 25
-0.71559465 -2.2862618 0.041815966 10
-0.87073028 -2.7802043 -0.67260373 3
-0.75750327 -2.4186752 0.13282867 7
-0.76204658 -2.431695 -0.4953402 8
-1.0289333 -3.2813234 0.30086163 12
-0.76287514 -2.4313636 -0.40360096 5
-0.99479157 -3.1685684 0.40777487 4
-0.75736588 -2.4108586 -0.31027937 2
-1.0277709 -3.271616 0.54314053 12
-0.77192408 -2.4557016 -0.22521043 9
-1.023188 -3.2530549 0.66287047 9
-0.77107269 -2.4500024 -0.13460809 11
-1.0208477 -3.241662 0.78462934 10
-0.76222998 -2.4204314 -0.044294208 3
-1.0172068 -3.228132 0.90690196 22
-0.71729863 -2.2653263 -0.63669485 1
-0.72860515 -2.3010337 0.042130109 11
-0.87876749 -2.7735858 -0.67170388 3
-0.76352686 -2.4084008 0.13240999 7
-0.77527952 -2.4439907 -0.49839315 8
-0.78109336 -2.4608278 -0.40891972 6
-0.87369746 -2.7509129 0.3543961 11
-0.77738106 -2.4461713 -0.31515417 7
-1.0284098 -3.2341232 0.5375089 10
-0.77747101 -2.4434991 -0.22433887 11
-1.0321839 -3.2440317 0.66172564 9
-0.78343415 -2.4607542 -0.13534079 10
-1.030409 -3.2345452 0.78372955 8
-0.77978426 -2.4463346 -0.044817779 11
-1.0225981 -3.2061567 0.90172559 19
-0.72893149 -2.2758136 -0.64031839 2
-0.735412 -2.294668 0.042060301 10
-0.89141917 -2.7797797 -0.67395335 3
-0.7721191 -2.4077573 0.13251466 10
-0.78937823 -2.4601002 -0.50220931 8
-0.78907448 -2.4562061 -0.40860689 7
-0.88390249 -2.7497356 0.3546398 13
-0.79138517 -2.4604504 -0.31734779 10
-1.0445724 -3.2476201 0.54032475 11
-0.78984243 -2.4541833 -0.22555906 11
-1.0404925 -3.231065 0.65981752 12
-0.79446924 -2.4656084 -0.13575949 10
-1.0404975 -3.2272193 0.78282976 11
-0.79280102 -2.458961 -0.04509702 10
-1.0290728 -3.1898782 0.89810216 19
-0.74938077 -2.3118474 -0.65118873 1
-0.74363405 -2.2941186 0.042095207 3
-0.88740557 -2.7360275 -0.66405559 1
-0.78113568 -2.4069474 0.13261932 11
-0.80341774 -2.4741352 -0.50564384 8
-0.79965681 -2.4610903 -0.40985835 7
-0.87767202 -2.699594 0.34854636 5
-0.80445278 -2.4729142 -0.3192977 7
-1.0522342 -3.2326834 0.5384475 11
-0.80580848 -2.4741449 -0.22765081 10
-1.0487696 -3.2201297 0.65829104 13
-0.80387861 -2.4667583 -0.13596882 9
-1.0475689 -3.2126348 0.78013033 11
-0.80696207 -2.4732885 -0.045411162 11
-1.0402011 -3.1862667 0.89810216 21
-0.7696802 -2.3479002 -0.66205913 1
-0.75911623 -2.3143101 0.042514063 9
-0.772982 -2.3551936 -0.57227552 1
-0.7839244 -2.3871279 0.13167727 12
-0.81161791 -2.4714575 -0.50564384 2
-0.81379539 -2.475173 -0.41267416 5
-0.88274759 -2.6833143 0.3468402 2
-0.81556302 -2.4776332 -0.32027265 6
-1.0622758 -3.2252386 0.53782177 11
-0.82148778 -2.4941678 -0.22974254 10
-1.0544728 -3.1996679 0.6548565 11
-0.81498659 -2.4715242 -0.13638751 10
-1.0538917 -3.1941535 0.7765311 10
-0.82185924 -2.4894454 -0.045760211 6
-1.0507113 -3.1807816 0.8975845 21
-0.7991578 -2.4093757 -0.68017644 2
-0.77663857 -2.3401148 0.043037634 12
-0.7787416 -2.3450832 -0.57047588 1
-0.78910351 -2.3749001 0.13115391 13
-0.90639198 -2.7263033 0.25135714 1
-0.83240664 -2.5023077 -0.41768005 6
-0.89336264 -2.6839833 0.34732765 2
-0.82796985 -2.4860718 -0.32173508 6
-1.0691561 -3.2083924 0.53563172 10
-0.82703972 -2.4818342 -0.22887097 10
-1.0674984 -3.2015548 0.65600139 12
-1.0613327 -3.1793644 0.77383167 11
-0.82801026 -2.4789743 -0.04562059 11
-1.06242 -3.1789272 0.89810216 19
-0.80449039 -2.3974137 -0.67758828 3
-0.78607512 -2.3411808 0.043107443 11
-0.87815154 -2.6139007 -0.63661152 1
-0.79866123 -2.3759177 0.13136327 13
-0.78318685 -2.3298833 -0.47778577 1
-0.84050655 -2.4975145 -0.41736722 4
-0.90145922 -2.6770861 0.3468402 1
-0.84171313 -2.4982159 -0.32368499 9
-1.0734075 -3.1840501 0.53219014 12
-0.8108753 -2.4053004 -0.22207282 14
-1.0749025 -3.1866474 0.65371162 11
-0.84563327 -2.5055146 -0.13858563 10
-1.0730479 -3.1774867 0.77428156 11
-0.8411392 -2.4893303 -0.045864921 9
-1.0642294 -3.1477478 0.89033753 20
-0.81409603 -2.3982499 -0.67862362 3
-0.79488552 -2.3403163 0.043142349 9
-0.92614704 -2.7252159 -0.66450548 2
-0.80887878 -2.3787878 0.13167727 13
-0.79573923 -2.3401463 -0.48045707 1
-0.85303867 -2.5057852 -0.41924441 7
-0.90759796 -2.6645279 0.3456215 1
-0.83698076 -2.4558046 -0.31856647 4
-1.0781394 -3.1615877 0.52906144 22
-0.80962014 -2.3741689 -0.21945816 10
-1.0822153 -3.1717277 0.65142196 12
-0.85889137 -2.5157783 -0.13931833 10
-1.0822431 -3.1681893 0.77293187 11
-0.85176384 -2.4920559 -0.045969639 9
-1.0745853 -3.1421859 0.88981992 20
-0.82120788 -2.3917391 -0.67758828 3
-0.81084687 -2.3602219 0.043561205 11
-0.94452298 -2.747767 -0.67080408 6
-0.81457913 -2.3683951 0.13125859 12
-0.81284231 -2.3633454 -0.4857997 1
-0.86756849 -2.5196023 -0.42206025 6
-0.90654767 -2.631314 0.34172165 1
-0.87142527 -2.5279365 -0.32831606 9
-1.0917453 -3.1652746 0.5303129 11
-0.81985164 -2.3769791 -0.21998109 31
-1.0875163 -3.151228 0.64798737 11
-0.86766762 -2.5127649 -0.13931833 10
-1.0862956 -3.1441314 0.76798296 12
-0.87156451 -2.5211966 -0.046563022 10
-1.0779688 -3.1165073 0.88360828 20
-0.82638276 -2.3797333 -0.67500007 2
-0.82104933 -2.3630438 0.043665919 13
-0.95538861 -2.7481344 -0.67170388 7
-0.8221854 -2.363651 0.13115391 12
-0.82108712 -2.3604937 -0.4857997 1
-0.94436842 -2.7133825 0.25135714 1
-0.88480359 -2.5408099 -0.42612755 6
-0.91180831 -2.6168864 0.34025922 1
-0.8782841 -2.5192559 -0.32758483 9
-1.1027876 -3.1614444 0.5303129 10
-0.86029851 -2.4662826 -0.22852236 11
-1.10045 -3.1529737 0.64913225 11
-0.88038468 -2.5210342 -0.13994636 9
-1.0934069 -3.1292822 0.76528352 11
-0.88365924 -2.5275772 -0.046737548 10
-1.0920306 -3.1218426 0.88619649 20
-0.83468461 -2.3768342 -0.67500007 4
-0.83194494 -2.3677101 0.043805543 10
-0.96497536 -2.7447829 -0.67170388 6
-0.82844251 -2.3551142 0.1308399 23
-0.85668331 -2.4353979 -0.50182766 1
-0.95383453 -2.7100694 0.25135714 1
-0.89891624 -2.5526118 -0.4286305 6
-0.92753404 -2.63241 0.34269661 1
-0.89235258 -2.531152 -0.32953474 6
-1.1065881 -3.137084 0.52687138 12
-0.89475054 -2.5365422 -0.23532049 11
-1.1101426 -3.1454103 0.64836901 11
-0.8958298 -2.5367787 -0.14099309 10
-1.1010773 -3.1162596 0.76303405 11
-0.89314359 -2.5263624 -0.04677245 11
-1.0990555 -3.107084 0.88309062 20
-0.83457237 -2.3502398 -0.66827077 3
-0.85292464 -2.400593 0.044468731 11
-0.94387156 -2.655098 -0.65055853 1
-0.83531976 -2.3484445 0.13063055 35
-0.90202343 -2.5359774 -0.52319831 6
-0.91047162 -2.5569022 -0.42988196 7
-0.92739052 -2.6029773 0.33928427 1
-0.90651464 -2.5429804 -0.33148462 9
-1.112223 -3.1183174 0.52436841 12
-0.90962338 -2.5502927 -0.2368893 12
-1.1178161 -3.1322706 0.64646095 11
-0.91139531 -2.5524459 -0.14203981 10
-1.1099817 -3.1068914 0.7616843 11
-0.90801466 -2.5401769 -0.047086593 10
-1.1040394 -3.0868578 0.87843186 19
-0.79968613 -2.2273102 -0.6341067 1
-0.85927063 -2.3919551 0.044364017 10
-0.84418833 -2.347394 0.13073523 42
-0.91485655 -2.5438979 -0.52548802 6
-0.94574803 -2.6283557 0.24438471 1
-0.92006058 -2.5555668 -0.43019485 7
-0.94588912 -2.6258705 0.34269661 1
-0.92211699 -2.5584755 -0.33392206 10
